-16.757732, 2.999974, 10.172457, 60, 70, 82, 0.043137
-18.340869, 2.940823, 10.815909, 138, 144, 144, 0.041176
-16.992835, 2.982374, 9.897049, 62, 71, 85, 0.042157
-14.404629, -1.275884, 15.227986, 115, 93, 70, 0.807673
-15.068052, 3.291148, 12.973347, 159, 161, 152, 0.047059
-15.175533, 3.030625, 8.642355, 74, 83, 90, 0.047712
-15.668046, 2.982043, 8.340628, 72, 80, 93, 0.030065
-5.645448, 2.090943, 15.473585, 72, 68, 56, 0.050196
-15.762379, 2.948077, 8.464829, 73, 85, 99, 0.047059
-15.492969, 2.922113, 7.984892, 68, 77, 86, 0.039216
-17.469296, 2.939494, 9.723361, 49, 61, 73, 0.044706
-8.898343, -1.677123, 16.745403, 105, 143, 176, 0.164706
-10.963707, -4.262495, 10.024775, 133, 137, 153, 0.220915
-15.323595, 3.168649, 16.574660, 180, 162, 124, 0.031373
-14.877522, 3.604285, 15.119231, 184, 178, 157, 0.039216
-18.262270, 2.822447, 8.248561, 86, 95, 100, 0.038235
-20.361701, 2.977492, 12.970978, 143, 150, 148, 0.039216
-17.581558, 3.358921, 17.628878, 226, 210, 137, 0.049486
-9.706215, 3.057600, 27.088504, 72, 82, 97, 0.044444
-16.806787, 3.221072, 17.987970, 182, 179, 160, 0.034314
-13.380240, 2.786224, 15.186713, 205, 186, 154, 0.039216
-17.503295, 3.344817, 17.548001, 229, 213, 139, 0.048284
-17.369852, 3.265181, 17.551960, 239, 224, 143, 0.046499
-9.445283, 3.088504, 36.523312, 46, 39, 32, 0.054902
-13.330219, 3.194125, 14.246880, 160, 141, 105, 0.050980
-8.274029, 3.161264, 16.144962, 151, 126, 88, 0.037535
-10.441853, 2.402282, 35.935562, 177, 171, 162, 0.077124
-16.338616, 3.121569, 18.006442, 172, 158, 137, 0.036601
-5.578031, 1.447661, 15.291636, 31, 22, 5, 0.048039
-14.703807, 3.231012, 20.821131, 168, 150, 136, 0.048627
-18.428649, 3.217847, 15.789061, 152, 153, 144, 0.036601
-9.298394, 1.705146, 31.064754, 37, 30, 25, 0.101634
-10.235821, 3.045556, 33.973968, 123, 113, 102, 0.073797
-13.740256, 2.812385, 15.567117, 207, 188, 157, 0.063399
-14.135143, 0.264504, 15.347875, 148, 139, 121, 0.142484
-15.762676, -6.673104, 14.474966, 169, 173, 169, 0.724706
-13.400794, -5.049745, 10.128488, 157, 160, 153, 0.635294
-13.261160, -4.972215, 10.153715, 149, 150, 145, 0.661438
-14.132345, -0.140961, 15.409451, 169, 155, 128, 0.395518
-15.822319, -6.847637, 14.409840, 114, 116, 109, 0.754510
-16.160031, -5.987680, 14.821575, 158, 158, 147, 0.727059
-12.017503, 3.136440, 29.448334, 94, 83, 94, 0.063137
-15.342640, -4.115851, 17.380960, 48, 64, 95, 0.598693
-11.901702, 3.427959, 12.274980, 147, 131, 91, 0.058824
-15.856357, -6.538572, 14.660178, 141, 145, 139, 0.722549
-8.866607, 1.589628, 29.898860, 49, 47, 41, 0.046078
-7.667870, 3.153051, 15.263155, 138, 113, 80, 0.042157
-15.342430, 3.330254, 15.530215, 200, 181, 119, 0.049376
-17.960244, 3.212248, 15.819967, 172, 169, 150, 0.043922
-15.406447, -4.997431, 8.932119, 151, 158, 160, 0.679412
-13.015133, 3.202158, 14.059769, 147, 127, 93, 0.041176
-14.014738, 3.260492, 14.644338, 187, 167, 128, 0.035294
-15.790645, 2.985786, 7.390941, 72, 80, 91, 0.038235
-19.615180, 2.907234, 9.587346, 211, 216, 210, 0.036601
-11.636947, 3.099077, 23.281554, 88, 77, 67, 0.050377
-11.919249, 3.761632, 12.750499, 165, 167, 155, 0.028758
-7.658720, 2.832309, 19.004025, 50, 40, 18, 0.033333
-14.927871, -4.506744, 9.589741, 98, 103, 104, 0.656209
-14.394186, 3.355645, 14.653486, 187, 167, 118, 0.045213
-14.906110, 3.513657, 14.929430, 170, 164, 139, 0.050458
-15.111411, 3.306244, 13.107168, 171, 178, 170, 0.040523
-15.709045, 3.014512, 9.213081, 44, 54, 66, 0.041830
-15.871796, 3.017856, 9.397347, 44, 53, 68, 0.050980
-11.808391, 3.429873, 12.161516, 172, 154, 111, 0.044706
-18.138511, 3.053136, 12.563723, 136, 141, 135, 0.037535
-18.672118, 2.981191, 12.404849, 157, 162, 158, 0.046275
-15.703322, 2.983348, 8.851026, 52, 62, 76, 0.036601
-15.694735, 2.989075, 8.858800, 52, 62, 76, 0.043137
-16.191087, 3.094751, 10.977774, 119, 127, 130, 0.044118
-15.985664, 3.076012, 10.535077, 80, 89, 96, 0.040000
-18.669820, 2.907909, 10.437204, 140, 146, 144, 0.039216
-17.736972, 3.062656, 12.292206, 142, 147, 145, 0.044118
-18.252774, 3.021026, 12.846462, 158, 163, 157, 0.045098
-15.787721, 3.006331, 9.403000, 42, 52, 64, 0.042353
-18.834637, 2.973373, 12.339339, 120, 125, 121, 0.041830
-17.555243, 3.111195, 13.228206, 138, 143, 137, 0.050980
-17.402705, 2.972547, 10.340590, 65, 76, 88, 0.028758
-14.310438, 3.284804, 12.204537, 100, 107, 110, 0.047582
-18.153263, 2.936050, 10.258750, 116, 124, 126, 0.038235
-7.565355, 1.249433, 17.600639, 24, 23, 14, 0.044706
-15.805839, 3.277861, 13.861225, 227, 226, 210, 0.041830
-15.916324, 3.036529, 9.810936, 72, 82, 94, 0.023529
-13.137119, 3.276379, 11.290353, 83, 89, 93, 0.039216
-16.556223, 3.069971, 11.008293, 76, 85, 93, 0.040000
-18.732123, 2.985308, 12.237670, 121, 126, 122, 0.032680
-16.983965, 3.039463, 11.360819, 88, 96, 100, 0.037908
-17.384655, 2.946892, 9.480896, 60, 72, 86, 0.040523
-13.975476, 3.301740, 12.214378, 136, 141, 137, 0.047059
-15.455587, 3.101200, 10.490570, 56, 67, 79, 0.033987
-15.392538, 3.059196, 9.729238, 53, 63, 75, 0.032680
-15.634404, 3.000015, 8.845719, 50, 60, 72, 0.037255
-15.580500, 2.969458, 8.655499, 74, 82, 95, 0.043791
-16.981936, 2.986233, 9.968798, 55, 64, 79, 0.050980
-16.063458, 2.996107, 9.203854, 54, 63, 78, 0.048366
-14.551880, 3.379665, 14.779482, 185, 170, 124, 0.041176
-12.962561, 2.257223, 15.198339, 224, 209, 182, 0.050420
-13.684589, 1.735508, 15.107187, 202, 180, 147, 0.079216
-13.249664, 3.446065, 13.295527, 171, 164, 137, 0.045005
-13.229299, 2.846195, 14.934757, 97, 79, 51, 0.067402
-16.057394, 3.157495, 18.665016, 164, 140, 126, 0.043791
-15.847381, 3.030687, 10.118552, 64, 74, 85, 0.028758
-14.017496, 3.012926, 15.236182, 152, 136, 107, 0.051765
-13.553881, 3.309920, 14.670448, 168, 148, 109, 0.043697
-15.507170, -5.073868, 14.839475, 138, 135, 124, 0.811765
-16.378963, 3.222256, 18.049200, 204, 198, 178, 0.045316
-18.144559, -5.027020, 14.988231, 138, 153, 171, 0.787451
-11.519678, 2.969702, 19.967370, 22, 21, 17, 0.046275
-13.690488, -1.116858, 13.829316, 123, 118, 98, 0.619608
-15.446360, 3.350147, 15.640414, 189, 171, 116, 0.052018
-16.183677, 3.422865, 16.286729, 206, 194, 158, 0.044563
-16.367538, -5.625981, 15.547393, 152, 150, 139, 0.779608
-12.055218, 3.041460, 14.536122, 148, 134, 99, 0.047059
-14.299819, 0.160781, 14.864291, 163, 152, 131, 0.528627
-14.354708, 0.158247, 14.731571, 163, 152, 131, 0.462255
-8.937352, 3.138948, 13.204491, 186, 188, 175, 0.040686
-13.086871, 0.525043, 15.294725, 74, 56, 38, 0.331373
-13.610503, 3.014354, 17.324404, 206, 204, 189, 0.050545
-16.818816, -6.616474, 14.569164, 121, 124, 130, 0.513725
-15.847476, 3.220618, 16.553223, 168, 153, 115, 0.048148
-12.376749, -1.432912, 13.677635, 159, 196, 209, 0.320915
-12.897799, -0.350940, 14.564861, 152, 123, 75, 0.392157
-13.188896, 3.152207, 14.238003, 150, 132, 96, 0.050327
-13.616966, 2.158781, 15.307573, 165, 140, 107, 0.099744
-12.504714, 3.331274, 12.517050, 98, 90, 70, 0.049135
-14.542618, 3.308519, 12.507600, 108, 114, 116, 0.049020
-14.800979, 3.435806, 13.941222, 167, 161, 141, 0.048179
-16.782872, -2.678604, 17.464855, 127, 121, 106, 0.480392
-13.716577, -1.223573, 14.891932, 120, 105, 80, 0.651765
-13.267190, 1.695820, 15.387517, 178, 159, 126, 0.067974
-18.057938, 3.030938, 12.095160, 146, 151, 148, 0.026144
-13.020107, -0.075820, 15.452619, 189, 175, 141, 0.426797
-12.920335, 2.911663, 14.921776, 217, 200, 172, 0.037908
-12.920335, 2.911663, 14.921776, 217, 200, 172, 0.037908
-13.539628, -1.271951, 14.268412, 93, 86, 67, 0.712745
-18.492823, 3.041705, 12.521577, 151, 156, 152, 0.037255
-13.716882, -1.341572, 14.603113, 60, 50, 39, 0.640784
-13.801117, 3.016673, 15.175776, 207, 188, 157, 0.042353
-17.564545, 3.118643, 12.672949, 149, 154, 151, 0.045098
-11.223204, 3.114625, 13.456759, 196, 176, 141, 0.037647
-10.565307, 3.181453, 14.843480, 163, 148, 122, 0.044444
-13.148744, -0.051980, 15.344895, 108, 95, 61, 0.442647
-13.598312, 3.251274, 14.635287, 162, 144, 106, 0.050980
-18.796064, 2.856389, 9.534939, 142, 148, 146, 0.046078
-13.328772, 1.188481, 15.337636, 191, 171, 135, 0.074510
-17.737345, 2.924802, 9.630920, 67, 77, 89, 0.043137
-16.690135, 3.227229, 16.967854, 201, 190, 147, 0.045969
-12.599727, 3.127009, 14.221915, 185, 167, 129, 0.045098
-17.120966, -6.009381, 15.352331, 126, 124, 112, 0.747059
-13.292974, -0.690319, 14.418825, 107, 99, 81, 0.575686
-12.577341, 3.265551, 13.372615, 175, 159, 122, 0.047843
-16.990045, 3.204987, 17.471083, 218, 208, 189, 0.047059
-12.753105, 3.500059, 12.900847, 87, 78, 58, 0.046218
-11.974224, 3.289854, 12.739732, 178, 161, 127, 0.037255
-15.541257, 3.183368, 17.542089, 219, 207, 180, 0.042157
-13.324765, 1.817715, 15.333052, 226, 209, 181, 0.069804
-13.324765, 1.817715, 15.333052, 226, 209, 181, 0.069804
-11.901819, 3.140517, 13.880859, 156, 140, 106, 0.046324
-13.356722, 1.854710, 15.347593, 194, 177, 149, 0.067320
-15.333882, 3.419425, 14.557205, 190, 182, 162, 0.050000
-17.070673, -2.101681, 16.988390, 151, 145, 124, 0.465098
-13.090724, -0.032794, 15.270762, 149, 133, 92, 0.333333
-19.136754, 3.061677, 13.419037, 130, 135, 131, 0.034641
-10.576225, 2.972129, 18.973113, 109, 73, 40, 0.042614
-12.288821, 3.397843, 12.361305, 157, 141, 112, 0.032353
-14.188474, 3.244327, 14.741878, 162, 145, 91, 0.032680
-17.164621, 3.208873, 15.063432, 183, 181, 166, 0.024837
-16.407404, 3.604802, 16.090369, 222, 223, 207, 0.046346
-16.782535, 3.303800, 14.954346, 222, 223, 207, 0.051515
-15.546673, -3.648873, 18.971984, 59, 78, 105, 0.679216
-15.570617, -3.636553, 18.948351, 59, 78, 105, 0.598693
-14.105211, 0.251035, 16.000670, 90, 67, 45, 0.360784
-14.295164, 3.105736, 18.238680, 195, 183, 156, 0.052451
-16.768955, -2.775975, 17.491013, 100, 90, 70, 0.475817
-13.130574, 3.060765, 14.651265, 193, 176, 145, 0.045882
-13.812085, 3.366562, 12.170870, 91, 100, 106, 0.048039
-16.177496, 3.203706, 12.926532, 135, 140, 136, 0.040196
-13.444378, 3.321219, 11.999632, 119, 121, 117, 0.044118
-17.743704, 2.952466, 10.194740, 84, 92, 103, 0.026144
-15.071171, 3.083195, 10.247556, 56, 64, 77, 0.040523
-13.917378, 1.778183, 15.682994, 84, 70, 51, 0.081232
-14.970287, 3.052014, 8.865615, 59, 66, 72, 0.044818
-14.472817, 3.260984, 12.270426, 108, 115, 117, 0.035294
-13.996248, -4.826626, 10.875792, 125, 126, 120, 0.620915
-16.158010, 3.016941, 9.629335, 62, 71, 86, 0.028758
-12.830024, 3.446961, 12.488334, 84, 78, 68, 0.039651
-17.487052, 3.215462, 14.955924, 168, 170, 159, 0.039216
-13.305502, 3.417882, 12.855101, 133, 126, 112, 0.038655
-18.933988, 2.913313, 11.044928, 129, 135, 135, 0.036275
-15.138910, 3.355742, 13.595252, 223, 221, 207, 0.048739
-15.247695, 3.296560, 13.405377, 223, 221, 207, 0.052288
-17.524540, 3.058607, 11.885615, 87, 94, 100, 0.041176
-16.289017, 3.197965, 13.078629, 156, 161, 156, 0.033333
-13.949620, 3.478394, 14.135212, 181, 169, 140, 0.040087
-15.914381, 3.026559, 9.250003, 42, 50, 63, 0.041176
-15.466640, 3.088498, 10.471769, 52, 62, 73, 0.053221
-12.947846, 3.536670, 12.873498, 136, 132, 119, 0.048693
-15.253911, 3.007802, 8.917957, 57, 65, 76, 0.048366
-15.371516, 3.274308, 13.413801, 225, 223, 211, 0.049412
-13.237832, 3.286789, 11.457978, 132, 137, 141, 0.031373
-16.032046, 2.944437, 9.023913, 45, 53, 66, 0.032680
-15.024576, 3.347629, 15.238018, 184, 165, 117, 0.051866
-10.063545, 2.097680, 18.471582, 44, 36, 19, 0.042484
-12.262876, 3.119305, 22.753462, 115, 106, 103, 0.038655
-13.195047, 3.100176, 18.222468, 90, 94, 97, 0.043137
-15.038527, 3.189739, 16.466743, 167, 151, 113, 0.049237
-13.744084, 2.111049, 15.510251, 188, 164, 130, 0.071569
-14.196526, 3.258928, 14.839693, 172, 154, 98, 0.039216
-16.148377, 3.427337, 16.273254, 206, 195, 164, 0.031373
-9.883794, 2.986254, 18.383049, 104, 80, 49, 0.058333
-13.803064, 3.130309, 20.547033, 183, 179, 162, 0.049673
-13.871051, 3.103123, 20.409181, 183, 179, 162, 0.049412
-12.226667, 3.054696, 19.885136, 71, 59, 44, 0.058467
-16.445893, 3.466612, 16.473689, 168, 160, 141, 0.041830
-18.000142, 3.439217, 17.873584, 154, 140, 113, 0.051852
-13.457017, 3.322740, 11.649350, 93, 100, 107, 0.033333
-13.692465, 2.832828, 16.167228, 72, 79, 90, 0.052451
-13.656312, -1.164082, 14.459086, 41, 36, 30, 0.498039
-13.739169, 2.888990, 16.163201, 59, 64, 72, 0.065975
-13.751985, 3.320718, 14.295943, 215, 197, 132, 0.040523
-12.983235, 0.497414, 11.321932, 31, 30, 26, 0.064052
-13.672090, 2.731254, 15.513327, 142, 119, 85, 0.080708
-15.253407, 3.348459, 15.438169, 179, 161, 105, 0.049510
-14.152207, 3.489925, 14.245829, 159, 148, 123, 0.039216
-10.654201, 3.139002, 14.540034, 154, 138, 110, 0.037647
-13.840285, -4.751341, 15.470696, 105, 104, 100, 0.644444
-14.252976, 3.175810, 18.054035, 156, 135, 99, 0.049150
-14.354833, 3.210597, 25.373509, 149, 133, 125, 0.044207
-13.338851, 3.063510, 14.700809, 150, 133, 103, 0.055089
-12.512739, 2.927165, 15.114192, 170, 158, 133, 0.042484
-14.107173, 3.175578, 10.808913, 72, 82, 92, 0.043573
-15.057719, -4.910613, 9.738240, 113, 118, 111, 0.647059
-14.706886, -1.528132, 16.455631, 81, 70, 59, 0.657569
-10.714237, 3.157221, 14.326032, 184, 164, 130, 0.042353
-13.740814, 2.847857, 16.173772, 72, 79, 90, 0.045490
-13.987459, 0.371812, 15.303532, 107, 88, 58, 0.369499
-13.645490, -1.268937, 14.724672, 139, 123, 101, 0.509542
-12.925329, 0.190049, 15.219190, 188, 166, 118, 0.201961
-14.182394, 0.090861, 15.380151, 144, 132, 109, 0.514379
-16.000027, 3.251560, 16.475836, 195, 178, 139, 0.029412
-17.391118, 3.160562, 14.808680, 220, 222, 208, 0.053119
-17.272804, 3.254676, 15.177947, 220, 222, 208, 0.052050
-4.641494, 3.035520, 14.565512, 83, 58, 36, 0.046367
-13.347544, 0.597467, 15.479013, 65, 51, 32, 0.286275
-14.067255, 0.445636, 15.968246, 133, 110, 76, 0.385882
-14.231177, -1.416625, 15.253847, 175, 159, 132, 0.706863
-14.231177, -1.416625, 15.253847, 175, 159, 132, 0.706863
-13.073023, 3.184784, 14.172261, 143, 124, 92, 0.045098
-12.934002, 1.076718, 15.114821, 171, 152, 110, 0.071895
-13.650244, 2.558984, 15.482433, 147, 124, 92, 0.097436
-13.646652, 2.561190, 15.482685, 147, 124, 92, 0.085554
-12.332755, 3.272670, 13.461329, 137, 120, 89, 0.040196
-18.979108, 2.468648, 10.199983, 92, 97, 103, 0.031373
-13.715096, 2.883624, 15.472261, 198, 179, 150, 0.061538
-15.199947, 3.231625, 16.866623, 179, 163, 126, 0.030065
-14.600546, 3.307740, 12.639470, 125, 130, 129, 0.048627
-14.631042, 3.463449, 14.792127, 186, 176, 147, 0.042157
-16.107001, 3.120909, 11.111909, 106, 114, 117, 0.042353
-14.067299, 3.312341, 12.050736, 84, 92, 100, 0.023529
-14.863084, 3.023552, 9.113023, 76, 83, 91, 0.040523
-17.882736, 3.061348, 11.999947, 133, 137, 140, 0.047059
-16.177779, 3.047029, 10.391074, 96, 105, 111, 0.047662
-15.184795, 3.154281, 11.155504, 65, 73, 84, 0.038431
-15.412258, 3.088833, 10.433342, 55, 65, 77, 0.047059
-6.154351, 2.695790, 16.449146, 31, 24, 14, 0.040196
-15.054703, 3.290775, 13.162444, 208, 209, 198, 0.046499
-8.932417, -1.684143, 16.717412, 105, 143, 176, 0.188796
-11.390805, 3.072687, 14.096546, 182, 164, 131, 0.045490
-10.419870, 3.255323, 13.527791, 145, 126, 93, 0.044258
-10.419870, 3.255323, 13.527791, 145, 126, 93, 0.044258
-10.589548, 3.205263, 13.725260, 123, 104, 72, 0.038235
-9.385068, -1.900980, 15.753234, 60, 80, 106, 0.211204
-14.751946, 3.293937, 18.164760, 147, 128, 92, 0.037908
-9.997718, 3.223129, 14.070756, 141, 123, 94, 0.034314
-17.677569, -2.877418, 7.036869, 104, 109, 112, 0.627451
-15.973862, 3.317188, 16.469136, 232, 215, 143, 0.049673
-16.983869, -2.831525, 6.929784, 88, 94, 92, 0.500654
-17.054263, -2.811178, 6.939169, 87, 93, 101, 0.450980
-20.192237, 2.978392, 13.395088, 136, 142, 140, 0.041569
-13.753363, 3.107687, 17.712681, 159, 147, 113, 0.043697
-19.358347, 3.026154, 13.294258, 155, 160, 156, 0.043627
-10.400091, 3.037157, 28.183761, 132, 131, 136, 0.061064
-14.450763, 3.271275, 12.536275, 152, 158, 153, 0.038889
-17.190602, 3.244324, 17.241354, 227, 210, 138, 0.047495
-15.027941, 3.221899, 17.719651, 193, 174, 140, 0.047619
-18.714479, 2.893417, 10.261267, 147, 153, 151, 0.027451
-12.210333, 3.104587, 26.685601, 130, 114, 122, 0.044444
-7.973783, 2.777700, 29.696021, 32, 25, 14, 0.071373
-7.970187, 2.990413, 17.043762, 80, 57, 29, 0.046569
-10.408092, 3.035409, 28.164378, 132, 131, 136, 0.062963
-13.346176, 3.159309, 19.532723, 186, 185, 172, 0.043137
-16.525663, 3.243822, 14.433216, 229, 228, 215, 0.032353
-14.739342, 3.233288, 12.589153, 166, 168, 163, 0.044444
-12.373131, -0.393733, 14.983552, 181, 154, 113, 0.248179
-8.365737, -1.810369, 17.018686, 165, 213, 243, 0.100980
-19.660690, 2.877933, 9.604684, 153, 158, 152, 0.039776
-21.159879, 2.798867, 10.755432, 156, 159, 150, 0.061176
-15.094425, 3.222539, 12.670791, 145, 147, 142, 0.044444
-13.305018, 2.096629, 15.259014, 212, 198, 171, 0.048039
-14.431112, -1.007839, 15.211467, 106, 90, 64, 0.621176
-7.860412, 2.917044, 16.787524, 77, 60, 40, 0.037535
-11.584771, 3.116630, 23.388801, 88, 77, 67, 0.050763
-13.517288, -1.447161, 14.574811, 149, 138, 120, 0.650109
-11.182271, 3.059242, 23.514560, 60, 61, 61, 0.055686
-8.060276, 1.940626, 17.838598, 27, 24, 12, 0.075223
-16.849988, 3.230621, 17.425269, 209, 202, 178, 0.040523
-11.807633, 3.053704, 14.369845, 140, 124, 90, 0.041830
-8.062880, 2.999081, 16.442238, 210, 178, 137, 0.044706
-7.227615, 1.106536, 17.577622, 18, 19, 13, 0.054902
-7.672704, 2.888776, 17.052400, 58, 43, 24, 0.049510
-13.483424, 2.233796, 15.235732, 193, 174, 143, 0.058824
-11.543174, 3.145064, 13.542328, 147, 130, 97, 0.038824
-16.472509, 3.375957, 16.595955, 187, 172, 122, 0.051735
-7.967300, 2.270261, 15.957216, 24, 16, 4, 0.042232
-11.761845, 3.260351, 13.217908, 160, 143, 111, 0.044608
-8.558450, 1.196881, 18.215014, 23, 22, 18, 0.043137
-9.513150, -1.061515, 15.038045, 55, 57, 64, 0.157843
-13.756921, 1.007097, 15.237066, 198, 177, 144, 0.147059
-15.879894, 3.164592, 18.553573, 201, 192, 174, 0.049412
-8.000978, 3.064319, 16.333068, 165, 133, 91, 0.040196
-9.736595, 3.076838, 18.184330, 158, 128, 85, 0.037908
-7.777191, 2.841558, 18.299391, 49, 37, 19, 0.043791
-10.692877, 3.060431, 26.779689, 111, 96, 104, 0.050288
-16.034320, 3.421290, 16.092650, 190, 179, 148, 0.048366
-16.023127, 3.423503, 16.080038, 190, 179, 148, 0.048861
-12.486162, 3.081471, 23.183849, 55, 54, 64, 0.048775
-8.009874, 2.736306, 16.626872, 67, 52, 35, 0.043873
-7.717565, 2.951145, 16.474260, 143, 111, 69, 0.043850
-11.014477, 3.243180, 12.741579, 147, 131, 103, 0.047059
-7.775208, 3.206483, 16.085136, 132, 105, 69, 0.043464
-12.765640, -0.182621, 15.266621, 53, 40, 18, 0.279412
-16.088976, 3.449259, 16.177291, 186, 179, 155, 0.049265
-9.122275, 2.066469, 18.583015, 22, 17, 5, 0.050980
-17.235436, 3.283917, 15.137751, 177, 177, 165, 0.034510
-15.341456, -5.832044, 15.374074, 56, 62, 69, 0.862309
-8.376578, 2.279475, 16.908370, 103, 91, 69, 0.042157
-7.966170, 2.833567, 16.920132, 93, 78, 53, 0.038725
-7.489027, 2.870350, 16.885423, 123, 101, 72, 0.037535
-12.115708, 3.123832, 23.175166, 132, 120, 115, 0.040138
-14.453053, 3.270562, 12.535125, 152, 158, 153, 0.040642
-8.247662, 3.010026, 16.542689, 163, 131, 92, 0.050830
-9.993686, 2.904736, 17.081297, 142, 110, 72, 0.047582
-8.808798, 0.911983, 18.566793, 32, 29, 20, 0.067843
-13.245682, 1.559849, 15.245554, 194, 173, 142, 0.061438
-12.290183, 3.177027, 13.858469, 167, 151, 118, 0.043922
-12.347258, 3.124818, 14.437940, 184, 166, 130, 0.032680
-11.243719, 3.146021, 23.679586, 133, 131, 125, 0.052288
-14.014236, 0.934361, 15.843069, 72, 55, 38, 0.298824
-9.175542, 1.976229, 18.632952, 19, 17, 5, 0.053595
-10.345549, 3.213818, 14.374584, 140, 118, 86, 0.040523
-7.939190, 2.561687, 18.623187, 27, 25, 12, 0.044258
-10.190737, 3.261370, 13.352043, 136, 120, 89, 0.041569
-16.036270, 3.415794, 15.483825, 170, 160, 135, 0.050980
-8.440002, 2.285585, 17.010664, 58, 47, 29, 0.037908
-13.501460, 3.403378, 12.070310, 100, 110, 116, 0.035294
-14.214824, 0.403716, 15.236130, 129, 121, 104, 0.473529
-9.825743, 3.247194, 14.041130, 140, 122, 94, 0.027451
-16.630351, -5.569075, 17.599602, 121, 159, 207, 0.658824
-15.126152, 3.217285, 17.903948, 155, 139, 107, 0.046757
-13.313931, 3.079861, 19.032071, 190, 191, 182, 0.042157
-17.639963, 2.943121, 10.121478, 64, 74, 84, 0.031373
-12.703303, 3.318253, 12.975140, 137, 119, 76, 0.044009
-13.117643, 2.758018, 14.995667, 199, 182, 154, 0.051634
-13.388546, 3.357357, 13.877912, 169, 149, 95, 0.045752
-8.084608, 3.167310, 15.584243, 137, 112, 80, 0.055338
-8.177378, 2.098668, 17.491544, 35, 29, 16, 0.042781
-17.867636, 2.963810, 11.331208, 89, 97, 100, 0.040196
-12.701170, -3.749867, 16.539562, 152, 142, 126, 0.734641
-14.754401, -1.708735, 16.406368, 76, 63, 46, 0.717647
-13.186600, 0.771177, 15.320836, 193, 175, 137, 0.155991
-9.793930, 3.220312, 13.579596, 119, 100, 72, 0.043922
-14.639200, 3.278236, 24.755349, 164, 140, 128, 0.042017
-10.153488, 3.293257, 13.041978, 182, 167, 141, 0.046667
-14.259165, 0.713135, 15.874034, 41, 35, 27, 0.438655
-16.060483, 3.317179, 16.719047, 221, 204, 140, 0.039706
-17.536867, 2.991613, 10.876724, 70, 79, 86, 0.047059
-17.464588, 3.423448, 16.765001, 183, 178, 153, 0.055971
-15.867378, 3.269324, 16.075059, 236, 220, 143, 0.049647
-11.335166, 3.456549, 11.689910, 130, 108, 71, 0.048179
-13.886477, 1.877290, 15.714853, 52, 43, 32, 0.098039
-13.465757, 3.279005, 14.284847, 147, 130, 85, 0.049020
-11.467451, 3.480108, 11.520487, 142, 138, 123, 0.044444
-14.286203, 0.467156, 15.700123, 86, 67, 43, 0.480392
-13.779666, 2.871854, 15.504578, 213, 193, 163, 0.053431
-13.828751, 1.761505, 15.284380, 149, 125, 93, 0.065882
-12.692572, 3.311318, 10.868003, 80, 88, 92, 0.041569
-18.671591, 3.287074, 16.029777, 170, 173, 164, 0.039706
-17.729028, 3.045634, 11.965855, 102, 108, 110, 0.049774
-11.224641, 3.208637, 13.472024, 159, 139, 104, 0.046623
-18.539844, 3.013599, 12.106353, 112, 116, 115, 0.044118
-14.679108, -1.539971, 16.478495, 78, 70, 58, 0.766745
-13.271781, 2.851787, 14.917194, 82, 63, 34, 0.052288
-13.848650, 3.202514, 10.442939, 95, 102, 108, 0.044444
-13.748974, 3.393496, 14.003835, 171, 154, 109, 0.049628
-13.936391, 1.356105, 15.692806, 203, 182, 138, 0.244034
-13.905887, 1.345296, 15.730066, 203, 182, 138, 0.183660
-10.873911, 3.285200, 12.367840, 168, 154, 130, 0.042577
-16.781640, -2.803237, 17.342969, 174, 163, 136, 0.412745
-9.684219, 3.332055, 13.783202, 153, 134, 103, 0.031373
-12.608156, -3.043902, 14.728113, 88, 75, 54, 0.489412
-11.088513, 3.335375, 11.985834, 196, 172, 111, 0.041830
-13.715350, 0.620874, 15.489853, 177, 153, 113, 0.401426
-12.430747, 3.110608, 14.846263, 179, 163, 126, 0.039216
-16.852507, 3.216130, 14.571681, 215, 216, 202, 0.036601
-14.298981, 3.360648, 14.458028, 185, 169, 128, 0.041457
-13.053699, 2.914873, 14.893879, 199, 183, 154, 0.050000
-13.423217, -5.804519, 12.734625, 69, 75, 85, 0.787582
-13.008406, -1.394879, 14.826372, 134, 127, 111, 0.480392
-15.066648, 3.175828, 16.419143, 161, 146, 109, 0.041457
-10.243597, 3.286216, 12.554089, 140, 125, 104, 0.047712
-17.529184, 3.124797, 13.254884, 129, 133, 132, 0.040196
-13.885082, 0.688425, 15.349112, 168, 140, 101, 0.346078
-13.981687, 3.109303, 16.775241, 172, 157, 113, 0.045752
-14.952301, 3.185040, 17.429166, 178, 160, 120, 0.040523
-13.888032, 0.825685, 15.312187, 159, 133, 96, 0.301525
-11.198552, 3.292371, 12.205703, 178, 159, 119, 0.034641
-10.903262, 3.277679, 11.992742, 115, 98, 69, 0.045098
-14.507648, -1.377166, 15.377481, 98, 78, 50, 0.721569
-13.740754, 3.441231, 13.963564, 177, 165, 128, 0.043697
-13.837194, 2.881313, 15.558837, 157, 141, 114, 0.068771
-14.063304, 3.166131, 9.313497, 57, 64, 72, 0.044118
-14.063304, 3.166131, 9.313497, 57, 64, 72, 0.044118
-13.841010, 3.307904, 11.795302, 82, 92, 100, 0.035294
-15.786721, 3.224155, 13.246337, 161, 164, 155, 0.047582
-18.079582, 3.041364, 12.773116, 149, 154, 150, 0.038235
-15.715796, 3.041908, 9.478385, 40, 50, 62, 0.043922
-17.606844, 2.929417, 10.137695, 73, 83, 95, 0.035294
-14.144674, 3.137352, 9.209899, 54, 61, 69, 0.037908
-17.364734, 2.910962, 8.959814, 77, 89, 101, 0.045098
-12.924362, 3.327093, 11.511343, 77, 83, 84, 0.050545
-17.065914, 3.012019, 10.669932, 76, 86, 96, 0.032680
-14.244538, 3.121585, 9.256097, 57, 64, 72, 0.042157
-14.158359, 3.281521, 12.054996, 92, 100, 105, 0.036275
-15.730388, 3.297034, 13.650387, 173, 174, 163, 0.041569
-17.606518, 3.311846, 17.759010, 238, 220, 140, 0.045938
-16.986767, 3.140527, 14.099555, 171, 172, 159, 0.026144
-17.236808, 2.987357, 11.077587, 89, 98, 106, 0.036601
-16.165202, 3.071471, 10.799127, 104, 112, 115, 0.038431
-16.853549, 3.054623, 11.124359, 64, 73, 81, 0.040196
-16.902641, 3.028990, 11.058417, 64, 73, 81, 0.041569
-16.278277, 3.062312, 10.701572, 83, 90, 97, 0.052549
-16.711812, -2.767759, 17.735748, 128, 120, 99, 0.712941
-17.417864, 3.310844, 17.635838, 223, 204, 122, 0.031373
-18.261425, 2.907762, 11.289094, 124, 130, 130, 0.036601
-14.543406, 3.079131, 8.618387, 65, 74, 81, 0.037908
-17.836017, 2.968245, 10.780828, 87, 96, 101, 0.047059
-17.393140, 2.986125, 9.831971, 51, 63, 75, 0.049020
-16.581612, 3.020753, 9.550905, 55, 67, 81, 0.045752
-15.551179, 3.034617, 8.930514, 51, 61, 75, 0.042353
-16.337329, 2.962900, 8.137781, 60, 72, 86, 0.035294
-16.337329, 2.962900, 8.137781, 60, 72, 86, 0.035294
-18.982405, 2.837229, 9.413965, 155, 160, 158, 0.037255
-19.121493, 2.852032, 9.566756, 158, 163, 159, 0.040784
-18.648684, 2.858559, 9.299553, 132, 141, 140, 0.043922
-18.501310, 2.898101, 10.248242, 133, 139, 137, 0.045752
-13.991268, 0.572927, 15.807450, 93, 77, 54, 0.193464
-17.682674, 2.910982, 8.761887, 89, 102, 111, 0.045752
-13.807243, 2.878440, 15.572728, 157, 141, 114, 0.058220
-12.819052, 3.086634, 27.218946, 65, 67, 86, 0.051471
-9.889643, 3.053852, 28.065725, 79, 87, 98, 0.055773
-9.053783, 3.052608, 28.087052, 76, 84, 96, 0.062465
-12.107796, 3.089805, 28.150186, 127, 126, 137, 0.056553
-11.693324, -3.898389, 11.519261, 83, 89, 101, 0.380392
-12.192652, 3.253561, 22.670247, 57, 62, 70, 0.048674
-8.068250, 3.155435, 15.748172, 129, 105, 70, 0.048904
-7.587329, 3.166432, 15.330793, 138, 113, 76, 0.057966
-11.373340, 3.406005, 11.804188, 188, 163, 119, 0.041569
-7.200693, 3.024151, 15.605225, 152, 121, 82, 0.045551
-7.776252, 2.876402, 16.756028, 67, 49, 26, 0.052941
-11.674562, -1.779137, 14.908105, 48, 57, 75, 0.255686
-17.209468, 2.886692, 8.125380, 51, 63, 77, 0.040196
-13.363945, 3.215887, 10.427589, 66, 73, 81, 0.036078
-8.563209, 1.060979, 18.857434, 70, 64, 53, 0.059216
-18.890993, 2.841639, 9.243214, 152, 158, 156, 0.040196
-14.387904, 3.183266, 16.069599, 140, 126, 84, 0.045098
-12.734387, 3.117958, 19.464917, 69, 76, 84, 0.047930
-10.939457, 3.288262, 12.176044, 125, 110, 83, 0.043697
-7.442078, 1.239594, 17.388003, 21, 20, 15, 0.044706
-15.637283, 3.149206, 18.807017, 200, 188, 170, 0.033333
-13.767506, 3.230635, 14.802135, 163, 145, 107, 0.039216
-7.481264, 1.084510, 17.590084, 21, 20, 15, 0.057843
-8.986106, -1.600401, 16.240155, 162, 213, 243, 0.414379
-14.903789, 3.171641, 18.145996, 218, 206, 176, 0.044258
-13.863371, 1.513165, 15.426023, 166, 144, 111, 0.155882
-12.400682, -1.602419, 14.995030, 63, 59, 56, 0.343627
-14.526418, 3.065894, 17.430283, 163, 142, 104, 0.044344
-14.239420, -0.328779, 14.856659, 116, 105, 85, 0.428627
-13.018880, 2.395884, 14.573439, 144, 119, 84, 0.047059
-12.693705, 0.599397, 15.075895, 41, 31, 21, 0.096732
-14.097498, 0.708167, 16.142916, 42, 32, 27, 0.414706
-15.976341, 3.166811, 13.467971, 226, 227, 215, 0.033333
-17.920146, 3.031546, 12.446406, 146, 151, 147, 0.044706
-15.444811, 3.444462, 15.509363, 184, 172, 140, 0.047964
-15.003325, 3.232982, 17.765573, 190, 171, 133, 0.047415
-11.393565, -1.897364, 15.249146, 163, 200, 228, 0.183193
-14.471186, -1.075418, 15.389503, 69, 55, 33, 0.792471
-18.046511, 2.841869, 8.124189, 102, 111, 116, 0.040196
-10.547302, 3.171732, 13.672264, 210, 188, 153, 0.046895
-5.648576, 2.149271, 16.298489, 27, 25, 14, 0.029804
-13.503624, -5.336306, 12.762662, 104, 107, 106, 0.862745
-11.717725, 3.476403, 11.617366, 146, 144, 132, 0.052661
-14.889460, 3.216591, 15.947145, 191, 176, 138, 0.050639
-13.868717, 1.722340, 15.664726, 165, 146, 110, 0.087955
-14.616994, 3.149624, 18.424295, 152, 138, 106, 0.047619
-18.884057, 2.926813, 10.800015, 141, 147, 145, 0.036601
-12.338123, 3.411135, 12.518417, 112, 102, 85, 0.039216
-12.628225, 2.847624, 15.215255, 187, 175, 152, 0.044009
-13.793636, 3.558076, 13.849123, 152, 146, 127, 0.044920
-12.553789, 3.441148, 12.323612, 78, 76, 63, 0.046667
-12.680981, 3.402185, 12.738675, 109, 107, 95, 0.046275
-14.279052, -1.112886, 15.202351, 143, 130, 106, 0.770588
-14.957945, 3.267078, 12.740747, 137, 139, 135, 0.040686
-17.301955, 3.960734, 19.041422, 174, 172, 154, 0.041830
-13.972140, 0.729034, 15.886188, 98, 79, 52, 0.284314
-14.609743, -1.560972, 16.311895, 102, 85, 58, 0.674020
-11.771890, 3.594620, 12.147877, 131, 132, 126, 0.043922
-15.741151, 3.076955, 10.822075, 90, 101, 107, 0.040000
-10.043095, 3.282805, 12.778791, 140, 125, 104, 0.043137
-11.582691, 3.122922, 13.952701, 176, 160, 127, 0.041830
-11.265196, 3.291515, 13.057157, 148, 129, 96, 0.041830
-16.436970, 2.974512, 10.714381, 103, 112, 118, 0.036078
-16.593425, 3.242777, 14.251766, 166, 169, 155, 0.041176
-16.057788, 3.127988, 12.759204, 156, 157, 151, 0.037255
-18.653278, 3.016218, 12.462023, 148, 153, 149, 0.044042
-18.840629, 3.016468, 12.439877, 115, 120, 116, 0.049412
-18.646316, 2.990664, 12.037557, 119, 123, 122, 0.032680
-14.645235, 3.258194, 12.345010, 104, 111, 113, 0.053476
-18.212680, 3.023876, 12.319535, 123, 128, 124, 0.034510
-18.655315, 2.982709, 12.255088, 144, 149, 145, 0.028758
-14.618340, 3.064646, 9.461602, 72, 79, 85, 0.041176
-17.866384, 2.665553, 9.468712, 69, 81, 93, 0.037255
-17.092638, 3.371454, 17.199841, 207, 192, 128, 0.049804
-8.072643, 1.274504, 37.930277, 175, 156, 120, 0.091765
-12.694448, 0.538758, 14.951662, 36, 34, 35, 0.103922
-7.689478, 2.010038, 17.296341, 27, 23, 12, 0.047339
-13.002656, 1.295983, 15.211282, 94, 73, 49, 0.050980
-17.666473, 3.261007, 17.946745, 233, 217, 139, 0.050980
-11.550061, 3.240724, 12.898540, 131, 112, 80, 0.051634
-6.436971, 2.275234, 16.734815, 47, 47, 38, 0.051765
-6.480860, 3.055943, 16.751060, 138, 111, 72, 0.066176
-11.314872, 3.090741, 28.439484, 124, 124, 132, 0.056645
-9.139851, 1.713723, 30.571401, 28, 25, 20, 0.066667
-6.334706, 2.950708, 16.684819, 168, 155, 117, 0.049412
-8.553193, 2.744831, 29.750663, 31, 25, 14, 0.042484
-16.231305, 3.305882, 16.398578, 195, 176, 112, 0.047339
-8.267093, 1.116007, 17.755188, 26, 24, 16, 0.032680
-6.287333, 2.114014, 16.477309, 20, 17, 8, 0.079378
-9.918764, 2.941090, 18.146333, 143, 119, 88, 0.041176
-13.590705, 3.323986, 13.888497, 178, 159, 102, 0.026144
-6.237746, 2.881933, 16.576925, 63, 55, 36, 0.047964
-12.817740, 3.296528, 13.285511, 186, 167, 108, 0.040087
-17.096908, 3.212870, 18.124479, 180, 179, 159, 0.041830
-17.057813, 3.229510, 18.217464, 180, 179, 159, 0.045098
-8.598706, 2.738332, 29.983813, 35, 29, 20, 0.063815
-6.460253, 2.176282, 16.430056, 53, 52, 42, 0.054342
-11.016283, 3.115848, 16.205857, 186, 184, 168, 0.033987
-8.499312, 2.751866, 30.635750, 27, 22, 16, 0.045316
-8.618419, 1.370307, 30.019807, 46, 42, 36, 0.060392
-17.439886, 3.298354, 17.563308, 223, 204, 122, 0.046078
-16.674652, 3.325783, 16.802627, 209, 189, 121, 0.042157
-12.838632, 1.647927, 15.217087, 210, 193, 164, 0.082353
-7.254080, 0.834607, 18.896039, 38, 32, 27, 0.061064
-12.726469, 3.115908, 23.624974, 68, 60, 61, 0.049237
-6.170684, 2.955192, 16.500794, 64, 46, 23, 0.058456
-6.172107, 3.008273, 16.125186, 90, 66, 34, 0.039216
-16.880358, 3.716893, 18.191687, 158, 152, 130, 0.042266
-7.237707, 3.033640, 16.255600, 135, 103, 58, 0.042266
-16.884356, -5.587846, 15.111294, 153, 151, 137, 0.623529
-18.648712, 3.243210, 16.446328, 219, 217, 203, 0.031373
-16.969054, -1.149054, 10.065334, 74, 76, 74, 0.528105
-6.366145, 2.937807, 16.767636, 52, 33, 11, 0.052549
-7.680435, 2.396851, 16.217763, 83, 72, 57, 0.051852
-7.758157, 1.463771, 17.580574, 24, 22, 10, 0.041176
-14.037926, 1.095748, 16.593701, 48, 44, 33, 0.275817
-6.246238, 2.469366, 15.960753, 63, 56, 47, 0.045098
-6.199566, 1.911995, 16.581517, 25, 23, 11, 0.060784
-6.323050, 1.899627, 16.485699, 25, 23, 11, 0.105392
-7.589200, 1.985316, 18.594245, 34, 31, 22, 0.039776
-7.672069, 1.993164, 16.811077, 40, 33, 20, 0.038562
-15.404040, 3.506568, 15.359728, 166, 160, 134, 0.047647
-5.682794, 2.049953, 16.299027, 17, 14, 7, 0.054575
-7.390904, 3.168349, 15.090625, 124, 101, 68, 0.033333
-6.841498, 2.145597, 17.039768, 85, 78, 59, 0.046623
-9.401185, 2.280206, 17.994157, 109, 84, 70, 0.052763
-6.598853, 1.174903, 17.005916, 27, 26, 17, 0.063399
-8.370707, 2.938612, 17.264034, 74, 51, 28, 0.050458
-8.259074, 2.610533, 16.506122, 58, 47, 28, 0.046405
-14.486920, -1.072308, 15.373997, 69, 55, 33, 0.805986
-6.843758, 2.864288, 16.809010, 136, 115, 78, 0.042266
-5.656789, 1.974519, 16.062237, 63, 59, 48, 0.054902
-6.226924, 2.301052, 16.894884, 50, 47, 38, 0.056209
-9.668196, 3.256592, 13.342669, 108, 90, 67, 0.048802
-14.137948, -1.362501, 15.803965, 168, 145, 116, 0.750588
-7.747185, 2.945403, 17.939120, 129, 113, 82, 0.046078
-8.202977, 2.979910, 16.699674, 152, 122, 84, 0.037647
-3.488441, 4.009399, 17.303801, 181, 179, 166, 0.035294
-7.850262, 3.203075, 15.024542, 179, 173, 152, 0.033333
-6.730704, 3.094460, 15.048405, 127, 98, 57, 0.047059
-7.433226, 3.157379, 15.732028, 161, 129, 90, 0.040784
-8.517494, 3.167546, 13.909498, 184, 182, 170, 0.050980
-8.177866, 2.376875, 16.736133, 103, 88, 66, 0.039572
-6.488976, 3.072825, 15.431587, 208, 182, 152, 0.045989
-14.357256, -1.605926, 15.392054, 159, 139, 112, 0.677451
-8.618485, 3.160672, 16.204322, 158, 133, 98, 0.045378
-14.198928, -0.985490, 15.296149, 141, 130, 103, 0.610784
-7.510058, 0.942921, 18.561186, 60, 56, 48, 0.032680
-11.741343, 3.357929, 12.285819, 190, 166, 107, 0.046078
-13.051822, 3.508249, 13.106434, 133, 126, 111, 0.045098
-13.831822, 0.361586, 15.417883, 174, 152, 115, 0.357843
-10.289071, 3.226891, 14.420615, 138, 118, 84, 0.042353
-13.233361, 2.671481, 15.350788, 196, 177, 146, 0.049673
-10.403475, -7.943193, 15.810377, 139, 173, 219, 0.653595
-9.478704, 3.266187, 13.169060, 90, 74, 60, 0.048179
-5.162522, 2.626274, 16.488602, 17, 14, 5, 0.038725
-5.003156, 2.747490, 16.467271, 21, 16, 7, 0.053221
-5.419423, 2.859403, 16.864328, 53, 46, 28, 0.047549
-13.823159, 3.465585, 13.333781, 133, 129, 115, 0.044118
-13.835473, 3.124879, 15.077603, 178, 160, 123, 0.050980
-5.117659, 2.228991, 16.331383, 19, 16, 4, 0.045938
-6.293138, 2.992476, 15.405369, 67, 43, 17, 0.060392
-10.226492, -8.007534, 15.373710, 137, 143, 147, 0.650980
-5.522880, 2.429826, 16.162959, 14, 11, 4, 0.048039
-5.051366, 2.438104, 16.291921, 19, 17, 5, 0.049020
-7.920477, 2.890264, 17.259248, 127, 111, 83, 0.040196
-14.653669, -1.948040, 16.639683, 186, 173, 136, 0.778758
-7.754118, 2.980229, 16.986997, 78, 54, 28, 0.054545
-14.058933, -1.002412, 15.374667, 115, 104, 81, 0.686275
-14.658509, 3.520923, 14.824684, 161, 153, 129, 0.050519
-14.095946, 3.499676, 14.202065, 160, 150, 121, 0.053408
-7.657539, 2.735695, 18.077789, 112, 107, 80, 0.032941
-7.979786, 0.997402, 19.103765, 30, 28, 21, 0.046499
-13.250650, 1.079944, 17.858104, 103, 99, 84, 0.255686
-9.563788, 3.228382, 13.520403, 113, 92, 68, 0.042577
-6.826039, 1.086826, 17.751661, 32, 33, 25, 0.052941
-8.268870, 2.419211, 17.140636, 90, 79, 58, 0.047843
-12.065028, 3.323786, 12.438366, 154, 126, 74, 0.047619
-8.033205, 1.475968, 17.948504, 18, 17, 8, 0.033333
-18.659853, 2.388718, 11.913403, 176, 176, 165, 0.028758
-7.608992, 2.619435, 18.407124, 41, 34, 19, 0.039572
-5.416230, 2.519897, 16.086456, 60, 58, 46, 0.043137
-7.434596, 3.205439, 14.700613, 171, 159, 138, 0.047712
-13.110542, -1.571479, 15.174229, 71, 63, 58, 0.535784
-7.735242, 3.075883, 15.489933, 162, 130, 90, 0.038235
-12.865793, -1.292699, 15.596334, 38, 33, 26, 0.350327
-14.283786, 0.918763, 16.363927, 42, 40, 27, 0.270196
-15.751295, 3.040877, 9.528852, 45, 55, 67, 0.037908
-14.388351, -0.941943, 15.208922, 144, 128, 103, 0.699564
-7.423110, 2.997844, 16.364473, 133, 101, 59, 0.046187
-8.557729, 3.000468, 17.045062, 151, 120, 78, 0.040087
-7.861848, 3.181635, 15.401895, 153, 133, 100, 0.047843
-6.411936, 2.820027, 17.175406, 36, 26, 9, 0.037255
-13.772432, 0.914959, 15.282353, 173, 150, 111, 0.257952
-18.177601, 3.387104, 18.288913, 214, 192, 141, 0.031373
-14.901069, 3.270891, 12.708791, 137, 142, 134, 0.034314
-14.057638, 2.945894, 15.627793, 148, 134, 105, 0.059608
-11.494923, 3.289710, 12.109650, 206, 184, 122, 0.054031
-12.440072, 3.478354, 12.204467, 105, 105, 95, 0.045633
-14.885237, 3.179574, 11.135417, 64, 74, 84, 0.056863
-13.756052, 3.274694, 14.067979, 216, 197, 124, 0.037255
-17.065573, 3.021050, 11.032230, 92, 102, 111, 0.035294
-15.942056, 3.016188, 8.760986, 48, 60, 74, 0.038235
-16.376364, 2.998531, 10.344006, 98, 108, 113, 0.041569
-17.520129, 2.858012, 8.328284, 69, 80, 92, 0.023529
-18.243856, 3.015117, 11.999058, 140, 145, 141, 0.042484
-12.504406, 3.330692, 12.643344, 106, 100, 79, 0.049198
-17.898222, 3.038808, 11.960560, 133, 139, 139, 0.034510
-15.915535, 3.033880, 9.798076, 65, 77, 89, 0.049860
-15.512358, 3.270610, 13.540899, 216, 217, 201, 0.045938
-13.593316, 3.369161, 13.397276, 174, 161, 124, 0.027451
-12.446813, 3.126826, 19.824014, 46, 45, 41, 0.057143
-13.496589, 3.435587, 13.747948, 178, 165, 125, 0.043922
-12.952177, -0.127192, 15.238125, 162, 150, 108, 0.299346
-14.928635, 3.249542, 15.471370, 170, 156, 107, 0.042484
-8.758854, 3.125650, 28.352375, 77, 87, 101, 0.053922
-17.875583, 3.229218, 18.016588, 181, 170, 126, 0.043137
-7.547897, 1.235472, 17.421036, 30, 29, 24, 0.040523
-15.284750, 1.164355, 14.547269, 34, 29, 25, 0.117647
-5.637826, 1.262433, 15.232178, 44, 31, 14, 0.048889
-17.118526, 3.362011, 17.208926, 208, 190, 127, 0.044118
-16.945965, 3.354597, 17.053219, 210, 194, 124, 0.044796
-19.632774, 2.970158, 12.167078, 147, 152, 148, 0.045378
-6.188165, 2.882476, 15.601030, 135, 118, 89, 0.038655
-10.633471, 2.204706, 22.950414, 43, 31, 16, 0.109804
-6.869574, 2.741290, 16.823351, 41, 27, 13, 0.045098
-10.820487, 2.107247, 22.879512, 100, 84, 62, 0.046078
-6.976795, 3.221660, 14.983364, 133, 113, 82, 0.047059
-5.730943, 2.295219, 16.103703, 90, 88, 76, 0.051961
-13.720357, 0.490165, 15.434371, 207, 182, 141, 0.177778
-15.560465, -7.229014, 18.139561, 129, 127, 112, 0.700000
-5.466445, 1.585501, 16.140129, 32, 25, 12, 0.055882
-7.519983, 3.200615, 15.179063, 132, 110, 79, 0.050000
-5.889207, 3.102618, 16.721747, 126, 101, 65, 0.037255
-13.924254, 1.552287, 15.574214, 126, 108, 82, 0.197124
-7.986969, 2.461203, 16.403044, 88, 75, 56, 0.039869
-14.174277, 3.304204, 12.970723, 136, 131, 114, 0.043627
-13.938347, 3.092132, 15.085508, 149, 130, 100, 0.057081
-11.658583, 3.488841, 11.969747, 123, 107, 83, 0.038431
-13.266323, 3.353184, 13.560435, 167, 145, 97, 0.035294
-18.531678, 3.283569, 16.507847, 224, 222, 208, 0.043137
-19.515356, -4.487642, 13.801261, 160, 161, 153, 0.809524
-19.743826, 2.931110, 11.648845, 134, 140, 136, 0.032680
-19.624873, 2.939344, 11.849146, 147, 153, 149, 0.028758
-19.627922, 2.991373, 12.895786, 150, 154, 153, 0.027451
-15.057103, 3.314673, 13.716039, 190, 182, 158, 0.043137
-10.545658, 3.094399, 13.675800, 154, 133, 98, 0.045695
-16.446274, -2.912994, 18.111879, 99, 93, 91, 0.754902
-18.831190, 3.242346, 15.974724, 175, 177, 171, 0.043137
-16.409522, -5.545797, 19.216987, 129, 131, 120, 0.674510
-14.357407, -1.419569, 15.576180, 87, 70, 44, 0.750490
-6.612797, 3.036789, 15.966526, 122, 90, 51, 0.033053
-13.517036, 3.421543, 13.622111, 173, 161, 126, 0.043137
-14.999280, 3.241852, 15.516942, 181, 163, 115, 0.044444
-13.072162, 3.239588, 19.934419, 165, 166, 150, 0.055392
-13.084214, 3.261927, 19.860749, 165, 166, 150, 0.050980
-15.102364, -8.164487, 17.371133, 119, 117, 123, 0.549020
-12.209103, 3.204708, 13.659595, 142, 123, 91, 0.044646
-15.005190, 3.107791, 11.618828, 88, 98, 102, 0.038235
-15.179355, 3.391195, 14.630219, 160, 153, 130, 0.048693
-13.338763, 3.074930, 14.546232, 151, 131, 101, 0.037255
-14.486620, -1.523144, 15.552197, 96, 86, 63, 0.672941
-15.953759, 3.262212, 16.150323, 231, 215, 137, 0.047843
-13.352008, 1.516336, 15.342280, 180, 161, 127, 0.129412
-13.398626, 2.906068, 15.061526, 130, 111, 78, 0.068627
-16.102342, 3.266668, 16.831008, 202, 189, 156, 0.048485
-14.498303, -1.229918, 15.284858, 154, 130, 104, 0.728922
-15.890965, 3.003218, 9.383009, 43, 53, 65, 0.043922
-18.881368, 2.808779, 8.717607, 118, 124, 122, 0.047059
-18.695494, 3.007136, 11.968945, 139, 143, 142, 0.043439
-19.310772, 2.891132, 10.040119, 143, 145, 142, 0.039216
-16.358083, 3.070737, 10.847362, 79, 87, 94, 0.045098
-16.843875, 2.872218, 8.273978, 63, 75, 89, 0.034314
-17.583574, 3.034703, 11.529744, 103, 110, 115, 0.036601
-16.888321, 2.860837, 8.284161, 78, 90, 104, 0.039216
-18.932421, 2.853868, 9.565594, 137, 141, 139, 0.042577
-17.750626, 3.095201, 12.546612, 141, 147, 145, 0.032680
-17.750626, 3.095201, 12.546612, 141, 147, 145, 0.032680
-18.504042, 2.910075, 9.937090, 151, 157, 156, 0.027451
-18.420286, 2.984802, 11.680858, 114, 120, 118, 0.043137
-18.724180, 3.007555, 11.244090, 131, 137, 135, 0.037647
-18.447066, 2.850999, 8.576942, 95, 104, 109, 0.046078
-19.553849, 2.824195, 9.255904, 208, 213, 207, 0.036601
-21.234337, 1.854243, 7.722198, 223, 226, 217, 0.033987
-19.495535, 2.826972, 9.292502, 132, 137, 132, 0.044118
-19.429949, 2.839886, 9.291164, 141, 146, 141, 0.030065
-18.248226, 2.851452, 8.347188, 85, 94, 99, 0.041176
-18.960235, 2.835108, 8.793668, 195, 202, 195, 0.050000
-19.064284, 2.836135, 8.961508, 139, 144, 138, 0.050980
-19.393048, 2.829242, 9.213726, 147, 152, 146, 0.042157
-18.670973, 2.820388, 8.500011, 157, 165, 166, 0.057843
-18.423026, 2.823853, 8.384886, 95, 105, 109, 0.039216
-17.925809, 3.297431, 17.890854, 193, 177, 108, 0.045938
-14.710228, 3.303524, 24.842961, 158, 135, 131, 0.046499
-12.067989, 3.245119, 12.800001, 144, 126, 95, 0.041569
-18.531678, 3.283569, 16.507847, 224, 222, 208, 0.043137
-13.366687, 2.838814, 15.133701, 155, 137, 104, 0.033725
-10.413087, 2.387863, 35.993267, 174, 168, 159, 0.041569
-16.413248, 3.417087, 16.438128, 189, 178, 152, 0.036275
-17.863977, 3.230430, 17.860623, 231, 218, 147, 0.052288
-17.214000, 3.363945, 17.284240, 209, 192, 128, 0.048627
-17.035708, 3.373295, 17.119256, 204, 188, 128, 0.049510
-6.479138, 2.172767, 16.414384, 53, 52, 42, 0.055686
-12.980778, 3.543391, 12.974814, 143, 138, 123, 0.048148
-17.993054, 3.330717, 18.119060, 207, 188, 126, 0.055882
-11.263719, 2.597175, 35.186453, 172, 171, 163, 0.056863
-12.656212, 0.723969, 15.122431, 59, 46, 30, 0.166013
-10.859879, 2.492394, 35.843905, 171, 170, 162, 0.054902
-19.813278, 2.976441, 12.471126, 131, 135, 134, 0.039216
-8.895165, 1.877734, 30.164436, 29, 26, 19, 0.050980
-12.166730, 3.363191, 12.496839, 151, 134, 93, 0.038431
-12.073485, -2.086393, 16.293992, 177, 165, 150, 0.571242
-11.917079, 3.085003, 22.380460, 111, 107, 97, 0.048366
-11.795184, 3.075709, 30.103249, 128, 113, 117, 0.052941
-9.254861, 1.229713, 36.268380, 75, 70, 68, 0.086601
-17.199830, 3.208344, 19.136373, 148, 134, 119, 0.041830
-20.989670, 3.047528, 14.928651, 142, 146, 145, 0.043137
-17.622302, 3.237914, 17.671975, 231, 215, 131, 0.055258
-17.144685, 3.094673, 11.894569, 112, 119, 125, 0.036601
-9.238298, 1.415792, 31.683201, 86, 72, 62, 0.041176
-8.423418, 2.170626, 29.870393, 67, 65, 53, 0.045098
-11.499676, -3.488107, 15.892178, 209, 200, 157, 0.701961
-6.963506, 1.923644, 16.981684, 17, 15, 6, 0.048284
-14.618936, 3.409080, 13.611564, 164, 162, 143, 0.040336
-9.170263, 2.809203, 32.370126, 29, 24, 19, 0.050490
-14.582578, -1.542348, 17.230039, 171, 164, 151, 0.682353
-13.482679, -6.009740, 12.616481, 96, 101, 96, 0.640523
-9.049614, 1.863767, 29.843159, 28, 25, 20, 0.038235
-11.901417, 3.119217, 14.026384, 161, 145, 111, 0.037908
-15.453976, 3.447811, 15.595125, 195, 179, 142, 0.040196
-12.491671, 3.168994, 25.834501, 85, 71, 77, 0.052070
-14.319931, 0.300337, 15.320031, 71, 54, 34, 0.456209
-13.187376, 3.047220, 14.606133, 195, 178, 148, 0.041176
-14.691776, -2.000441, 16.432749, 182, 170, 140, 0.715966
-9.861001, 3.103749, 17.534297, 187, 154, 112, 0.046499
-15.587398, -3.641404, 18.640260, 139, 183, 222, 0.789978
-12.968073, 2.399273, 15.090692, 224, 206, 175, 0.051282
-13.789125, 2.928706, 15.426842, 148, 130, 98, 0.050075
-9.902652, 3.015651, 28.689315, 65, 71, 78, 0.051261
-11.169019, 2.829915, 23.560634, 55, 65, 78, 0.083333
-13.881636, 3.225139, 24.372208, 158, 132, 121, 0.043922
-9.412665, 2.993670, 29.947183, 108, 111, 115, 0.063866
-13.758501, 3.169091, 27.671172, 87, 80, 91, 0.038431
-10.421179, 3.056678, 25.571767, 60, 56, 66, 0.056427
-14.064131, 3.319173, 14.225262, 190, 169, 119, 0.032680
-7.904363, 1.950625, 17.974998, 22, 18, 7, 0.044538
-8.172865, 3.183285, 15.168701, 199, 192, 170, 0.058543
-9.351268, 3.250933, 13.154295, 62, 53, 45, 0.045752
-8.523049, 1.984439, 29.574212, 36, 32, 21, 0.054902
-12.186853, 3.275446, 13.112964, 167, 148, 112, 0.035294
-7.646610, 1.471846, 17.821279, 26, 23, 11, 0.047059
-7.494538, 1.739985, 29.470465, 76, 71, 59, 0.100980
-20.802593, 2.801960, 10.381036, 215, 218, 209, 0.047059
-13.668290, 3.084908, 27.834954, 104, 105, 116, 0.042157
-13.227660, 3.009297, 14.799511, 192, 173, 140, 0.053159
-12.149527, 3.033617, 18.719304, 42, 42, 41, 0.043137
-11.007441, 3.075006, 24.191630, 128, 121, 117, 0.049020
-17.193802, 2.988560, 10.581941, 66, 76, 87, 0.033333
-7.699888, 1.046748, 18.199750, 42, 38, 27, 0.037647
-7.026043, 1.952623, 17.610087, 19, 16, 9, 0.045425
-11.084348, 2.845309, 23.700788, 55, 64, 78, 0.073638
-11.002510, 3.007387, 14.953648, 207, 207, 188, 0.048179
-11.385720, 2.891090, 14.210834, 202, 199, 181, 0.042781
-7.013450, 1.422781, 17.513829, 15, 15, 7, 0.042484
-12.147909, 3.122055, 19.840716, 156, 141, 114, 0.049222
-10.906561, 3.126764, 14.609652, 151, 131, 97, 0.047619
-10.658868, 3.124966, 23.921181, 112, 114, 114, 0.059804
-8.384380, 2.201216, 18.449935, 21, 21, 9, 0.048039
-13.894151, 1.314611, 15.637639, 142, 120, 82, 0.283987
-7.767105, 1.955108, 17.831157, 24, 18, 3, 0.036863
-13.208034, 0.537487, 15.418283, 181, 161, 122, 0.241176
-19.591677, 2.835875, 9.752266, 150, 156, 153, 0.043922
-16.156737, 3.246568, 16.932763, 206, 201, 177, 0.041830
-11.197385, 3.062085, 24.182750, 148, 127, 109, 0.054031
-7.076607, 1.158873, 17.424674, 21, 21, 13, 0.029804
-13.793632, 0.666537, 16.935310, 62, 52, 39, 0.346218
-14.399368, 3.240739, 14.991556, 150, 133, 84, 0.051471
-14.382870, -1.723458, 15.672174, 102, 86, 62, 0.512418
-12.959891, -1.555033, 14.587050, 126, 119, 101, 0.280112
-14.500106, -0.831654, 16.140192, 60, 48, 32, 0.747059
-15.475328, 3.230735, 13.269161, 223, 223, 207, 0.049472
-12.880759, -1.694435, 14.650138, 163, 147, 124, 0.390018
-16.484175, 3.164200, 13.934143, 220, 221, 205, 0.047619
-14.095743, -1.868961, 16.000919, 174, 154, 130, 0.774510
-14.991404, 3.189667, 16.320497, 179, 165, 129, 0.046187
-9.387092, -0.968685, 14.970459, 66, 65, 66, 0.199346
-14.431816, -1.493485, 16.912202, 65, 58, 48, 0.754062
-13.612148, 0.695550, 15.570492, 193, 169, 130, 0.215686
-11.739121, 3.083224, 14.814655, 162, 143, 110, 0.038095
-12.910576, 0.552435, 15.287798, 44, 33, 30, 0.154412
-12.887075, -0.050443, 15.350128, 198, 182, 133, 0.332078
-12.356366, 3.145387, 14.405019, 184, 166, 128, 0.041026
-6.035746, 1.800131, 16.226022, 25, 22, 13, 0.028758
-18.374311, 3.022746, 11.979479, 125, 131, 129, 0.041711
-13.699774, 1.972252, 15.520521, 100, 76, 48, 0.122092
-16.968788, 3.445853, 17.076158, 198, 184, 155, 0.032941
-12.457968, -3.092524, 13.606691, 83, 86, 94, 0.488889
-9.941250, 3.180633, 14.235601, 176, 161, 133, 0.030588
-13.543265, 3.427952, 13.795355, 179, 164, 121, 0.047870
-10.606289, 3.161631, 14.620414, 156, 138, 106, 0.045752
-13.946328, 1.214946, 15.693000, 197, 171, 122, 0.222549
-15.700321, -5.257969, 15.037318, 161, 160, 143, 0.835730
-13.913402, 1.573127, 15.521805, 92, 72, 48, 0.192157
-9.719459, 3.226100, 13.685452, 118, 97, 68, 0.051961
